//X Y Z R G B PointSourceId ScanAngleRank ScanDirectionFlag NumberOfReturns ReturnNumber GpsTime Intensity
544495.18725586 258517.30688477 6.37299957 38 38 38 3739.000000 1.000000 1.000000 1.000000 1.000000 288938.922239 9847.000000
544495.63159180 258517.37719727 6.37499847 37 37 37 3739.000000 1.000000 1.000000 1.000000 1.000000 288938.922241 9587.000000
544496.07543945 258517.44750977 6.37399902 35 35 35 3739.000000 1.000000 1.000000 1.000000 1.000000 288938.922244 9085.000000
544496.52026367 258517.51391602 6.35599747 42 42 42 3739.000000 1.000000 1.000000 1.000000 1.000000 288938.922246 10922.000000
544496.96411133 258517.58422852 6.35299911 35 35 35 3739.000000 1.000000 1.000000 1.000000 1.000000 288938.922248 9076.000000
544497.40844727 258517.65454102 6.34299698 36 36 36 3739.000000 1.000000 1.000000 1.000000 1.000000 288938.922250 9260.000000
544491.23461914 258516.19360352 6.40799942 42 42 42 3739.000000 1.000000 1.000000 1.000000 1.000000 288938.932213 10931.000000
544491.68090820 258516.25024414 6.38499680 37 37 37 3739.000000 1.000000 1.000000 1.000000 1.000000 288938.932216 9531.000000
544492.12573242 258516.31469727 6.38299789 41 41 41 3739.000000 1.000000 1.000000 1.000000 1.000000 288938.932218 10515.000000
544492.57006836 258516.38305664 6.38499680 37 37 37 3739.000000 1.000000 1.000000 1.000000 1.000000 288938.932220 9582.000000
544493.01538086 258516.44555664 6.37399902 38 38 38 3739.000000 1.000000 1.000000 1.000000 1.000000 288938.932222 9884.000000
544493.45922852 258516.51782227 6.38799896 36 36 36 3739.000000 1.000000 1.000000 1.000000 1.000000 288938.932224 9376.000000
544493.90356445 258516.58422852 6.38600006 40 40 40 3739.000000 1.000000 1.000000 1.000000 1.000000 288938.932227 10340.000000
544494.34936523 258516.64477539 6.36199799 35 35 35 3739.000000 1.000000 1.000000 1.000000 1.000000 288938.932229 9191.000000
544494.79321289 258516.71508789 6.36899796 38 38 38 3739.000000 1.000000 1.000000 1.000000 1.000000 288938.932231 9765.000000
544495.23754883 258516.78540039 6.36899796 36 36 36 3739.000000 1.000000 1.000000 1.000000 1.000000 288938.932233 9454.000000
544495.68090820 258516.85766602 6.37200012 40 40 40 3739.000000 1.000000 1.000000 1.000000 1.000000 288938.932235 10449.000000
544496.12475586 258516.92797852 6.37499847 41 41 41 3739.000000 1.000000 1.000000 1.000000 1.000000 288938.932238 10626.000000
544496.56958008 258516.99438477 6.35899963 39 39 39 3739.000000 1.000000 1.000000 1.000000 1.000000 288938.932240 10100.000000
544497.01440430 258517.06079102 6.34099808 41 41 41 3739.000000 1.000000 1.000000 1.000000 1.000000 288938.932242 10706.000000
544497.45776367 258517.13500977 6.34599915 37 37 37 3739.000000 1.000000 1.000000 1.000000 1.000000 288938.932244 9682.000000
544497.90209961 258517.20532227 6.33499756 40 40 40 3739.000000 1.000000 1.000000 1.000000 1.000000 288938.932246 10311.000000
544498.34448242 258517.28149414 6.34499969 39 39 39 3739.000000 1.000000 1.000000 1.000000 1.000000 288938.932249 10140.000000
544498.78784180 258517.35766602 6.35100021 39 39 39 3739.000000 1.000000 1.000000 1.000000 1.000000 288938.932251 10207.000000
544499.23071289 258517.43579102 6.35699692 42 42 42 3739.000000 1.000000 1.000000 1.000000 1.000000 288938.932253 10797.000000
544499.67358398 258517.51196289 6.35599747 40 40 40 3739.000000 1.000000 1.000000 1.000000 1.000000 288938.932255 10349.000000
544500.11499023 258517.59790039 6.38199844 47 47 47 3739.000000 1.000000 1.000000 1.000000 1.000000 288938.932257 12032.000000
544491.33129883 258515.69165039 6.38600006 36 36 36 3739.000000 1.000000 1.000000 1.000000 1.000000 288938.942207 9422.000000
544491.77709961 258515.75024414 6.36699905 40 40 40 3739.000000 1.000000 1.000000 1.000000 1.000000 288938.942210 10411.000000
544492.22192383 258515.81274414 6.36399689 42 42 42 3739.000000 1.000000 1.000000 1.000000 1.000000 288938.942212 10786.000000
544492.66625977 258515.88110352 6.36599960 39 39 39 3739.000000 1.000000 1.000000 1.000000 1.000000 288938.942214 10209.000000
544493.11254883 258515.93774414 6.34199753 39 39 39 3739.000000 1.000000 1.000000 1.000000 1.000000 288938.942216 10093.000000
544493.55541992 258516.01586914 6.37200012 38 38 38 3739.000000 1.000000 1.000000 1.000000 1.000000 288938.942218 9873.000000
544494.00024414 258516.08032227 6.36399689 34 34 34 3739.000000 1.000000 1.000000 1.000000 1.000000 288938.942221 8738.000000
544494.44458008 258516.14868164 6.35999908 36 36 36 3739.000000 1.000000 1.000000 1.000000 1.000000 288938.942223 9336.000000
544494.88940430 258516.21508789 6.35299911 40 40 40 3739.000000 1.000000 1.000000 1.000000 1.000000 288938.942225 10429.000000
544495.33227539 258516.29125977 6.37399902 44 44 44 3739.000000 1.000000 1.000000 1.000000 1.000000 288938.942227 11457.000000
544495.77661133 258516.35961914 6.36899796 39 39 39 3739.000000 1.000000 1.000000 1.000000 1.000000 288938.942229 10213.000000
544496.21997070 258516.43383789 6.37900009 36 36 36 3739.000000 1.000000 1.000000 1.000000 1.000000 288938.942232 9436.000000
544496.66430664 258516.50024414 6.36500015 39 39 39 3739.000000 1.000000 1.000000 1.000000 1.000000 288938.942234 10064.000000
544497.10913086 258516.56665039 6.34799805 37 37 37 3739.000000 1.000000 1.000000 1.000000 1.000000 288938.942236 9593.000000
544497.55297852 258516.64086914 6.34999695 37 37 37 3739.000000 1.000000 1.000000 1.000000 1.000000 288938.942238 9558.000000
544497.99829102 258516.70336914 6.32199707 40 40 40 3739.000000 1.000000 1.000000 1.000000 1.000000 288938.942240 10433.000000
544498.44165039 258516.77563477 6.31699982 40 40 40 3739.000000 1.000000 1.000000 1.000000 1.000000 288938.942243 10264.000000
544498.88452148 258516.85375977 6.32799759 36 36 36 3739.000000 1.000000 1.000000 1.000000 1.000000 288938.942245 9434.000000
544499.32641602 258516.93774414 6.34899750 42 42 42 3739.000000 1.000000 1.000000 1.000000 1.000000 288938.942247 10928.000000
544499.76977539 258517.01196289 6.34599915 37 37 37 3739.000000 1.000000 1.000000 1.000000 1.000000 288938.942249 9711.000000
544500.21264648 258517.08618164 6.34299698 32 32 32 3739.000000 1.000000 1.000000 2.000000 2.000000 288938.942251 8330.000000
544500.65600586 258517.16430664 6.34299698 35 35 35 3739.000000 1.000000 1.000000 1.000000 1.000000 288938.942254 9114.000000
544491.55249023 258515.15258789 6.34799805 34 34 34 3739.000000 1.000000 1.000000 1.000000 1.000000 288938.952201 8892.000000
544491.99682617 258515.21899414 6.35399857 39 39 39 3739.000000 1.000000 1.000000 1.000000 1.000000 288938.952204 10020.000000
544492.44213867 258515.28344727 6.34999695 36 36 36 3739.000000 1.000000 1.000000 1.000000 1.000000 288938.952206 9336.000000
544492.88745117 258515.34399414 6.33599701 37 37 37 3739.000000 1.000000 1.000000 1.000000 1.000000 288938.952208 9591.000000
544493.33276367 258515.40649414 6.32399979 41 41 41 3739.000000 1.000000 1.000000 1.000000 1.000000 288938.952210 10557.000000
544493.77661133 258515.47680664 6.33499756 37 37 37 3739.000000 1.000000 1.000000 1.000000 1.000000 288938.952212 9698.000000
544494.22045898 258515.55102539 6.35100021 40 40 40 3739.000000 1.000000 1.000000 1.000000 1.000000 288938.952215 10344.000000
544494.66430664 258515.62133789 6.35800018 37 37 37 3739.000000 1.000000 1.000000 1.000000 1.000000 288938.952217 9667.000000
544495.10864258 258515.68969727 6.35699692 40 40 40 3739.000000 1.000000 1.000000 1.000000 1.000000 288938.952219 10440.000000
544495.55249023 258515.76196289 6.36199799 40 40 40 3739.000000 1.000000 1.000000 1.000000 1.000000 288938.952221 10433.000000
544495.99682617 258515.83032227 6.35599747 39 39 39 3739.000000 1.000000 1.000000 1.000000 1.000000 288938.952223 10229.000000
544496.44116211 258515.89868164 6.35100021 33 33 33 3739.000000 1.000000 1.000000 1.000000 1.000000 288938.952226 8661.000000
544496.88549805 258515.96704102 6.34299698 32 32 32 3739.000000 1.000000 1.000000 1.000000 1.000000 288938.952228 8423.000000
544497.32983398 258516.03735352 6.33299866 37 37 37 3739.000000 1.000000 1.000000 1.000000 1.000000 288938.952230 9707.000000
544497.77368164 258516.10766602 6.33199921 37 37 37 3739.000000 1.000000 1.000000 1.000000 1.000000 288938.952232 9691.000000
544498.21704102 258516.18188477 6.33399811 39 39 39 3739.000000 1.000000 1.000000 1.000000 1.000000 288938.952234 10162.000000
544498.66088867 258516.25219727 6.32300034 39 39 39 3739.000000 1.000000 1.000000 1.000000 1.000000 288938.952237 10027.000000
544499.10522461 258516.32446289 6.31299820 35 35 35 3739.000000 1.000000 1.000000 1.000000 1.000000 288938.952239 9020.000000
544499.54809570 258516.40063477 6.31899872 38 38 38 3739.000000 1.000000 1.000000 1.000000 1.000000 288938.952241 9804.000000
544499.99096680 258516.47875977 6.32399979 34 34 34 3739.000000 1.000000 1.000000 1.000000 1.000000 288938.952243 8734.000000
544500.43481445 258516.54907227 6.30799713 31 31 31 3739.000000 1.000000 1.000000 1.000000 1.000000 288938.952245 8063.000000
544500.87719727 258516.63110352 6.32099762 39 39 39 3739.000000 1.000000 1.000000 1.000000 1.000000 288938.952248 10231.000000
544491.53588867 258514.52172852 6.33499756 39 39 39 3739.000000 1.000000 1.000000 1.000000 1.000000 288938.962193 10113.000000
544491.98071289 258514.59008789 6.34499969 42 42 42 3739.000000 1.000000 1.000000 1.000000 1.000000 288938.962195 10824.000000
544492.42602539 258514.65063477 6.33499756 37 37 37 3739.000000 1.000000 1.000000 1.000000 1.000000 288938.962198 9642.000000
544492.87133789 258514.71313477 6.32499924 36 36 36 3739.000000 1.000000 1.000000 1.000000 1.000000 288938.962200 9434.000000
544493.31616211 258514.77758789 6.32099762 43 43 43 3739.000000 1.000000 1.000000 1.000000 1.000000 288938.962202 11237.000000
544493.76098633 258514.84399414 6.31699982 38 38 38 3739.000000 1.000000 1.000000 1.000000 1.000000 288938.962204 9947.000000
544494.20532227 258514.91625977 6.33000031 39 39 39 3739.000000 1.000000 1.000000 1.000000 1.000000 288938.962206 10040.000000
544494.64819336 258514.99243164 6.35499802 38 38 38 3739.000000 1.000000 1.000000 1.000000 1.000000 288938.962209 9878.000000
544495.09301758 258515.05688477 6.34400024 34 34 34 3739.000000 1.000000 1.000000 1.000000 1.000000 288938.962211 8809.000000
544495.53833008 258515.12133789 6.32699814 39 39 39 3739.000000 1.000000 1.000000 1.000000 1.000000 288938.962213 10131.000000
544495.98168945 258515.19555664 6.33799973 37 37 37 3739.000000 1.000000 1.000000 1.000000 1.000000 288938.962215 9665.000000
544496.42456055 258515.27368164 6.35899963 40 40 40 3739.000000 1.000000 1.000000 1.000000 1.000000 288938.962217 10278.000000
544496.86987305 258515.33813477 6.34099808 40 40 40 3739.000000 1.000000 1.000000 1.000000 1.000000 288938.962220 10315.000000
544497.31469727 258515.40063477 6.31899872 41 41 41 3739.000000 1.000000 1.000000 1.000000 1.000000 288938.962222 10606.000000
544497.75903320 258515.47094727 6.31099930 38 38 38 3739.000000 1.000000 1.000000 1.000000 1.000000 288938.962224 9916.000000
544498.20288086 258515.54321289 6.30699768 36 36 36 3739.000000 1.000000 1.000000 1.000000 1.000000 288938.962226 9329.000000
544498.64721680 258515.61547852 6.30099716 40 40 40 3739.000000 1.000000 1.000000 1.000000 1.000000 288938.962228 10264.000000
544499.09057617 258515.68774414 6.29599991 34 34 34 3739.000000 1.000000 1.000000 1.000000 1.000000 288938.962231 8705.000000
544499.53344727 258515.76586914 6.30899658 35 35 35 3739.000000 1.000000 1.000000 1.000000 1.000000 288938.962233 9176.000000
544499.97680664 258515.84399414 6.31199875 36 36 36 3739.000000 1.000000 1.000000 1.000000 1.000000 288938.962235 9362.000000
544500.42065430 258515.91235352 6.29499664 37 37 37 3739.000000 1.000000 1.000000 1.000000 1.000000 288938.962237 9649.000000
544500.86254883 258515.99829102 6.31899872 38 38 38 3739.000000 1.000000 1.000000 1.000000 1.000000 288938.962239 9869.000000
544491.28002930 258513.88110352 6.34400024 39 39 39 3739.000000 1.000000 1.000000 1.000000 1.000000 288938.972183 10235.000000
544491.72534180 258513.94165039 6.33700027 37 37 37 3739.000000 1.000000 1.000000 1.000000 1.000000 288938.972185 9698.000000
544492.16967773 258514.01196289 6.35299911 41 41 41 3739.000000 1.000000 1.000000 1.000000 1.000000 288938.972187 10531.000000
544492.61645508 258514.06469727 6.31899872 37 37 37 3739.000000 1.000000 1.000000 1.000000 1.000000 288938.972189 9649.000000
544493.05981445 258514.14086914 6.34699860 42 42 42 3739.000000 1.000000 1.000000 1.000000 1.000000 288938.972192 10895.000000
544493.50659180 258514.19555664 6.31299820 38 38 38 3739.000000 1.000000 1.000000 1.000000 1.000000 288938.972194 9913.000000
544493.95043945 258514.26782227 6.33000031 39 39 39 3739.000000 1.000000 1.000000 1.000000 1.000000 288938.972196 10158.000000
544494.39428711 258514.34008789 6.33899918 36 36 36 3739.000000 1.000000 1.000000 1.000000 1.000000 288938.972198 9442.000000
544494.83911133 258514.40649414 6.33399811 41 41 41 3739.000000 1.000000 1.000000 1.000000 1.000000 288938.972200 10502.000000
544495.28393555 258514.47290039 6.32799759 37 37 37 3739.000000 1.000000 1.000000 1.000000 1.000000 288938.972203 9516.000000
544495.72827148 258514.54125977 6.32699814 43 43 43 3739.000000 1.000000 1.000000 1.000000 1.000000 288938.972205 11082.000000
544496.17211914 258514.61352539 6.33099976 38 38 38 3739.000000 1.000000 1.000000 1.000000 1.000000 288938.972207 9780.000000
544496.61645508 258514.68188477 6.32799759 37 37 37 3739.000000 1.000000 1.000000 1.000000 1.000000 288938.972209 9518.000000
544497.06079102 258514.75219727 6.32399979 38 38 38 3739.000000 1.000000 1.000000 1.000000 1.000000 288938.972211 9745.000000
544497.50561523 258514.81860352 6.30899658 37 37 37 3739.000000 1.000000 1.000000 1.000000 1.000000 288938.972214 9573.000000
544497.94995117 258514.88891602 6.30299988 36 36 36 3739.000000 1.000000 1.000000 1.000000 1.000000 288938.972216 9305.000000
544498.39477539 258514.95532227 6.28299942 37 37 37 3739.000000 1.000000 1.000000 1.000000 1.000000 288938.972218 9620.000000
544498.83813477 258515.02954102 6.28399887 34 34 34 3739.000000 1.000000 1.000000 1.000000 1.000000 288938.972220 8880.000000
544499.28149414 258515.10766602 6.29299774 37 37 37 3739.000000 1.000000 1.000000 1.000000 1.000000 288938.972222 9622.000000
544499.72387695 258515.18774414 6.30599823 36 36 36 3739.000000 1.000000 1.000000 1.000000 1.000000 288938.972225 9234.000000
544500.16821289 258515.25610352 6.28999939 35 35 35 3739.000000 1.000000 1.000000 1.000000 1.000000 288938.972227 9127.000000
544500.61157227 258515.33227539 6.28999939 34 34 34 3739.000000 1.000000 1.000000 1.000000 1.000000 288938.972229 8849.000000
544491.54028320 258513.38891602 6.34799805 42 42 42 3739.000000 1.000000 1.000000 1.000000 1.000000 288938.982175 10904.000000
544491.98608398 258513.44750977 6.33499756 42 42 42 3739.000000 1.000000 1.000000 1.000000 1.000000 288938.982177 10977.000000
544492.43139648 258513.51000977 6.33000031 40 40 40 3739.000000 1.000000 1.000000 1.000000 1.000000 288938.982179 10298.000000
544492.87719727 258513.57055664 6.31499710 39 39 39 3739.000000 1.000000 1.000000 1.000000 1.000000 288938.982181 10029.000000
544493.32104492 258513.64086914 6.32599869 37 37 37 3739.000000 1.000000 1.000000 1.000000 1.000000 288938.982183 9505.000000
544493.76635742 258513.70336914 6.31699982 38 38 38 3739.000000 1.000000 1.000000 1.000000 1.000000 288938.982186 9729.000000
544494.21020508 258513.77758789 6.33399811 41 41 41 3739.000000 1.000000 1.000000 1.000000 1.000000 288938.982188 10597.000000
544494.65454102 258513.84399414 6.33199921 39 39 39 3739.000000 1.000000 1.000000 1.000000 1.000000 288938.982190 10058.000000
544495.09887695 258513.91430664 6.33599701 38 38 38 3739.000000 1.000000 1.000000 1.000000 1.000000 288938.982192 9929.000000
544495.54418945 258513.97875977 6.32300034 35 35 35 3739.000000 1.000000 1.000000 1.000000 1.000000 288938.982194 9005.000000
544495.98901367 258514.04321289 6.31099930 39 39 39 3739.000000 1.000000 1.000000 1.000000 1.000000 288938.982197 10207.000000
544496.43334961 258514.11352539 6.31099930 36 36 36 3739.000000 1.000000 1.000000 1.000000 1.000000 288938.982199 9405.000000
544496.87768555 258514.18188477 6.30199661 41 41 41 3739.000000 1.000000 1.000000 1.000000 1.000000 288938.982201 10666.000000
544497.32202148 258514.25415039 6.30099716 38 38 38 3739.000000 1.000000 1.000000 1.000000 1.000000 288938.982203 9962.000000
544497.76635742 258514.32055664 6.28899994 36 36 36 3739.000000 1.000000 1.000000 1.000000 1.000000 288938.982205 9234.000000
544498.21069336 258514.39086914 6.28199997 37 37 37 3739.000000 1.000000 1.000000 1.000000 1.000000 288938.982208 9573.000000
544498.65405273 258514.46704102 6.28799667 36 36 36 3739.000000 1.000000 1.000000 1.000000 1.000000 288938.982210 9287.000000
544499.09790039 258514.53930664 6.28299942 35 35 35 3739.000000 1.000000 1.000000 1.000000 1.000000 288938.982212 8963.000000
544499.54125977 258514.61547852 6.28999939 39 39 39 3739.000000 1.000000 1.000000 1.000000 1.000000 288938.982214 10058.000000
544499.98510742 258514.68774414 6.28199997 37 37 37 3739.000000 1.000000 1.000000 1.000000 1.000000 288938.982216 9678.000000
544500.42797852 258514.76391602 6.28299942 40 40 40 3739.000000 1.000000 1.000000 1.000000 1.000000 288938.982219 10331.000000
544500.87231445 258514.83618164 6.26999893 32 32 32 3739.000000 1.000000 1.000000 1.000000 1.000000 288938.982221 8261.000000
544491.21557617 258512.78735352 6.34499969 36 36 36 3739.000000 1.000000 1.000000 1.000000 1.000000 288938.992164 9462.000000
544491.66186523 258512.84204102 6.31600037 43 43 43 3739.000000 1.000000 1.000000 1.000000 1.000000 288938.992166 11059.000000
544492.10668945 258512.90844727 6.32399979 41 41 41 3739.000000 1.000000 1.000000 1.000000 1.000000 288938.992169 10591.000000
544492.55151367 258512.97485352 6.32799759 33 33 33 3739.000000 1.000000 1.000000 1.000000 1.000000 288938.992171 8563.000000
544492.99584961 258513.04321289 6.33899918 38 38 38 3739.000000 1.000000 1.000000 1.000000 1.000000 288938.992173 9976.000000
544493.44311523 258513.09399414 6.29799881 39 39 39 3739.000000 1.000000 1.000000 1.000000 1.000000 288938.992175 10153.000000
544493.88647461 258513.16821289 6.31899872 38 38 38 3739.000000 1.000000 1.000000 1.000000 1.000000 288938.992177 9844.000000
544494.33081055 258513.23657227 6.32099762 33 33 33 3739.000000 1.000000 1.000000 1.000000 1.000000 288938.992180 8481.000000
544494.77514648 258513.30493164 6.32599869 38 38 38 3739.000000 1.000000 1.000000 1.000000 1.000000 288938.992182 9758.000000
544495.22143555 258513.36352539 6.29799881 40 40 40 3739.000000 1.000000 1.000000 1.000000 1.000000 288938.992184 10291.000000
544495.66430664 258513.44165039 6.32399979 38 38 38 3739.000000 1.000000 1.000000 1.000000 1.000000 288938.992186 9760.000000
544496.11010742 258513.50219727 6.29499664 38 38 38 3739.000000 1.000000 1.000000 1.000000 1.000000 288938.992188 9789.000000
544496.55346680 258513.57641602 6.30799713 37 37 37 3739.000000 1.000000 1.000000 1.000000 1.000000 288938.992191 9638.000000
544496.99780273 258513.64672852 6.30699768 34 34 34 3739.000000 1.000000 1.000000 1.000000 1.000000 288938.992193 8885.000000
544497.44360352 258513.70727539 6.27699890 34 34 34 3739.000000 1.000000 1.000000 1.000000 1.000000 288938.992195 8936.000000
544497.88696289 258513.78149414 6.28399887 40 40 40 3739.000000 1.000000 1.000000 1.000000 1.000000 288938.992197 10389.000000
544498.33032227 258513.85766602 6.28899994 38 38 38 3739.000000 1.000000 1.000000 1.000000 1.000000 288938.992199 9769.000000
544498.77368164 258513.93188477 6.29299774 41 41 41 3739.000000 1.000000 1.000000 1.000000 1.000000 288938.992202 10504.000000
544499.21752930 258514.00610352 6.29399719 36 36 36 3739.000000 1.000000 1.000000 1.000000 1.000000 288938.992204 9409.000000
544499.66088867 258514.07836914 6.28699722 40 40 40 3739.000000 1.000000 1.000000 1.000000 1.000000 288938.992206 10275.000000
544500.10375977 258514.15844727 6.30199661 36 36 36 3739.000000 1.000000 1.000000 1.000000 1.000000 288938.992208 9274.000000
544500.54858398 258514.22485352 6.27500000 36 36 36 3739.000000 1.000000 1.000000 1.000000 1.000000 288938.992210 9418.000000
544491.15551758 258512.18188477 6.30199661 40 40 40 3739.000000 1.000000 1.000000 1.000000 1.000000 288939.002156 10371.000000
544491.59936523 258512.25024414 6.31899872 38 38 38 3739.000000 1.000000 1.000000 1.000000 1.000000 288939.002158 9747.000000
544492.04614258 258512.30493164 6.29199829 40 40 40 3739.000000 1.000000 1.000000 1.000000 1.000000 288939.002160 10431.000000
544492.48999023 258512.37719727 6.31399765 34 34 34 3739.000000 1.000000 1.000000 1.000000 1.000000 288939.002163 8712.000000
544492.93530273 258512.43969727 6.30599823 35 35 35 3739.000000 1.000000 1.000000 1.000000 1.000000 288939.002165 9163.000000
544493.38012695 258512.50610352 6.31099930 34 34 34 3739.000000 1.000000 1.000000 1.000000 1.000000 288939.002167 8872.000000
544493.82446289 258512.57446289 6.31499710 33 33 33 3739.000000 1.000000 1.000000 1.000000 1.000000 288939.002169 8581.000000
544494.26977539 258512.63500977 6.29699936 33 33 33 3739.000000 1.000000 1.000000 1.000000 1.000000 288939.002171 8461.000000
544494.71411133 258512.70532227 6.30699768 35 35 35 3739.000000 1.000000 1.000000 1.000000 1.000000 288939.002174 9165.000000
544495.15844727 258512.77368164 6.30599823 34 34 34 3739.000000 1.000000 1.000000 1.000000 1.000000 288939.002176 8863.000000
544495.60229492 258512.84399414 6.31399765 37 37 37 3739.000000 1.000000 1.000000 1.000000 1.000000 288939.002178 9631.000000
544496.04711914 258512.91040039 6.30299988 37 37 37 3739.000000 1.000000 1.000000 1.000000 1.000000 288939.002180 9625.000000
544496.49340820 258512.96704102 6.26899948 38 38 38 3739.000000 1.000000 1.000000 1.000000 1.000000 288939.002182 9833.000000
544496.93627930 258513.04516602 6.28999939 40 40 40 3739.000000 1.000000 1.000000 1.000000 1.000000 288939.002185 10495.000000
544497.37963867 258513.11938477 6.29599991 38 38 38 3739.000000 1.000000 1.000000 1.000000 1.000000 288939.002187 9889.000000
544497.82397461 258513.18969727 6.29299774 37 37 37 3739.000000 1.000000 1.000000 1.000000 1.000000 288939.002189 9673.000000
544498.26879883 258513.25610352 6.27699890 40 40 40 3739.000000 1.000000 1.000000 1.000000 1.000000 288939.002191 10460.000000
544498.71069336 258513.34008789 6.30599823 40 40 40 3739.000000 1.000000 1.000000 1.000000 1.000000 288939.002193 10411.000000
544499.15502930 258513.40649414 6.28899994 36 36 36 3739.000000 1.000000 1.000000 1.000000 1.000000 288939.002196 9220.000000
544499.59887695 258513.47875977 6.28499832 38 38 38 3739.000000 1.000000 1.000000 1.000000 1.000000 288939.002198 9953.000000
544500.04174805 258513.55883789 6.29599991 33 33 33 3739.000000 1.000000 1.000000 1.000000 1.000000 288939.002200 8652.000000
544500.48559570 258513.62915039 6.28199997 36 36 36 3739.000000 1.000000 1.000000 1.000000 1.000000 288939.002202 9456.000000
544500.92846680 258513.70532227 6.28499832 38 38 38 3739.000000 1.000000 1.000000 1.000000 1.000000 288939.002204 9953.000000
544491.34252930 258511.65454102 6.28499832 35 35 35 3739.000000 1.000000 1.000000 1.000000 1.000000 288939.012150 9209.000000
544491.78735352 258511.72094727 6.28999939 40 40 40 3739.000000 1.000000 1.000000 1.000000 1.000000 288939.012152 10318.000000
544492.23168945 258511.79125977 6.30899658 41 41 41 3739.000000 1.000000 1.000000 1.000000 1.000000 288939.012155 10733.000000
544492.67749023 258511.84790039 6.28699722 38 38 38 3739.000000 1.000000 1.000000 1.000000 1.000000 288939.012157 9867.000000
544493.12182617 258511.91821289 6.30499878 43 43 43 3739.000000 1.000000 1.000000 1.000000 1.000000 288939.012159 11111.000000
544493.56713867 258511.98071289 6.29299774 39 39 39 3739.000000 1.000000 1.000000 1.000000 1.000000 288939.012161 10218.000000
544494.01098633 258512.05102539 6.30599823 36 36 36 3739.000000 1.000000 1.000000 1.000000 1.000000 288939.012163 9287.000000
544494.45532227 258512.12133789 6.31600037 37 37 37 3739.000000 1.000000 1.000000 1.000000 1.000000 288939.012165 9698.000000
544494.90014648 258512.18383789 6.30499878 40 40 40 3739.000000 1.000000 1.000000 1.000000 1.000000 288939.012168 10298.000000
544495.34497070 258512.25024414 6.29899826 37 37 37 3739.000000 1.000000 1.000000 1.000000 1.000000 288939.012170 9702.000000
544495.78979492 258512.31665039 6.29199829 39 39 39 3739.000000 1.000000 1.000000 1.000000 1.000000 288939.012172 10238.000000
544496.23315430 258512.39282227 6.30799713 37 37 37 3739.000000 1.000000 1.000000 1.000000 1.000000 288939.012174 9511.000000
544496.67797852 258512.45532227 6.29199829 39 39 39 3739.000000 1.000000 1.000000 1.000000 1.000000 288939.012176 10091.000000
544497.12329102 258512.51782227 6.26800003 38 38 38 3739.000000 1.000000 1.000000 1.000000 1.000000 288939.012179 9789.000000
544497.56567383 258512.59985352 6.29799881 40 40 40 3739.000000 1.000000 1.000000 1.000000 1.000000 288939.012181 10484.000000
544498.01098633 258512.66430664 6.27699890 37 37 37 3739.000000 1.000000 1.000000 1.000000 1.000000 288939.012183 9609.000000
544498.45434570 258512.73657227 6.27699890 35 35 35 3739.000000 1.000000 1.000000 1.000000 1.000000 288939.012185 9034.000000
544498.89819336 258512.80883789 6.27399673 41 41 41 3739.000000 1.000000 1.000000 1.000000 1.000000 288939.012187 10506.000000
544499.34106445 258512.88696289 6.28499832 41 41 41 3739.000000 1.000000 1.000000 1.000000 1.000000 288939.012190 10633.000000
544499.78442383 258512.96313477 6.29399719 40 40 40 3739.000000 1.000000 1.000000 1.000000 1.000000 288939.012192 10264.000000
544500.22778320 258513.03735352 6.29299774 37 37 37 3739.000000 1.000000 1.000000 1.000000 1.000000 288939.012194 9636.000000
544500.67065430 258513.11547852 6.29799881 42 42 42 3739.000000 1.000000 1.000000 1.000000 1.000000 288939.012196 10951.000000
544491.44165039 258511.13696289 6.29599991 44 44 44 3739.000000 1.000000 1.000000 1.000000 1.000000 288939.022144 11466.000000
544491.88696289 258511.19750977 6.28899994 39 39 39 3739.000000 1.000000 1.000000 1.000000 1.000000 288939.022146 10120.000000
544492.33227539 258511.26196289 6.28999939 39 39 39 3739.000000 1.000000 1.000000 1.000000 1.000000 288939.022149 10211.000000
544492.77612305 258511.33227539 6.30899658 41 41 41 3739.000000 1.000000 1.000000 1.000000 1.000000 288939.022151 10709.000000
544493.22143555 258511.39672852 6.30499878 44 44 44 3739.000000 1.000000 1.000000 1.000000 1.000000 288939.022153 11402.000000
544493.66528320 258511.46508789 6.31399765 38 38 38 3739.000000 1.000000 1.000000 1.000000 1.000000 288939.022155 9771.000000
544494.11010742 258511.53344727 6.31799927 42 42 42 3739.000000 1.000000 1.000000 1.000000 1.000000 288939.022157 10911.000000
544494.55493164 258511.59790039 6.31199875 39 39 39 3739.000000 1.000000 1.000000 1.000000 1.000000 288939.022159 10064.000000
544495.00024414 258511.66040039 6.29899826 41 41 41 3739.000000 1.000000 1.000000 1.000000 1.000000 288939.022162 10729.000000
544495.44506836 258511.72485352 6.28999939 45 45 45 3739.000000 1.000000 1.000000 1.000000 1.000000 288939.022164 11733.000000
544495.88842773 258511.80102539 6.31099930 45 45 45 3739.000000 1.000000 1.000000 1.000000 1.000000 288939.022166 11575.000000
544496.33374023 258511.86157227 6.28599777 40 40 40 3739.000000 1.000000 1.000000 1.000000 1.000000 288939.022168 10402.000000
544496.77758789 258511.93383789 6.28999939 41 41 41 3739.000000 1.000000 1.000000 1.000000 1.000000 288939.022170 10504.000000
544497.22192383 258512.00219727 6.28499832 37 37 37 3739.000000 1.000000 1.000000 1.000000 1.000000 288939.022173 9540.000000
544497.66577148 258512.07641602 6.29399719 45 45 45 3739.000000 1.000000 1.000000 1.000000 1.000000 288939.022175 11590.000000
544498.10913086 258512.14868164 6.29699936 44 44 44 3739.000000 1.000000 1.000000 1.000000 1.000000 288939.022177 11475.000000
544498.55493164 258512.20922852 6.26599731 37 37 37 3739.000000 1.000000 1.000000 1.000000 1.000000 288939.022179 9611.000000
544498.99731445 258512.28930664 6.28399887 43 43 43 3739.000000 1.000000 1.000000 1.000000 1.000000 288939.022181 11057.000000
544499.44018555 258512.36547852 6.29399719 37 37 37 3739.000000 1.000000 1.000000 1.000000 1.000000 288939.022184 9478.000000
544499.88452148 258512.43383789 6.27699890 40 40 40 3739.000000 1.000000 1.000000 1.000000 1.000000 288939.022186 10284.000000
544500.32739258 258512.51196289 6.28499832 36 36 36 3739.000000 1.000000 1.000000 1.000000 1.000000 288939.022188 9389.000000
544500.77026367 258512.59008789 6.29299774 35 35 35 3739.000000 1.000000 1.000000 1.000000 1.000000 288939.022190 8989.000000
544493.34545898 258510.83422852 6.29999771 47 47 47 3739.000000 1.000000 1.000000 1.000000 1.000000 288939.032147 12150.000000
544493.78979492 258510.90258789 6.31099930 42 42 42 3739.000000 1.000000 1.000000 1.000000 1.000000 288939.032149 10964.000000
544494.23510742 258510.96508789 6.29899826 44 44 44 3739.000000 1.000000 1.000000 1.000000 1.000000 288939.032151 11335.000000
544494.67993164 258511.02954102 6.28999939 39 39 39 3739.000000 1.000000 1.000000 1.000000 1.000000 288939.032154 10071.000000
544495.12426758 258511.09985352 6.29799881 40 40 40 3739.000000 1.000000 1.000000 1.000000 1.000000 288939.032156 10344.000000
544495.56860352 258511.16821289 6.29899826 46 46 46 3739.000000 1.000000 1.000000 1.000000 1.000000 288939.032158 11946.000000
544496.01342773 258511.23461914 6.29499664 41 41 41 3739.000000 1.000000 1.000000 1.000000 1.000000 288939.032160 10686.000000
544496.45776367 258511.30297852 6.29299774 38 38 38 3739.000000 1.000000 1.000000 1.000000 1.000000 288939.032162 9769.000000
544496.90161133 258511.37329102 6.29199829 41 41 41 3739.000000 1.000000 1.000000 1.000000 1.000000 288939.032164 10555.000000
544497.34643555 258511.44165039 6.28599777 38 38 38 3739.000000 1.000000 1.000000 1.000000 1.000000 288939.032167 9936.000000
544497.79028320 258511.51196289 6.28599777 45 45 45 3739.000000 1.000000 1.000000 1.000000 1.000000 288939.032169 11533.000000
544498.23413086 258511.58422852 6.28799667 40 40 40 3739.000000 1.000000 1.000000 1.000000 1.000000 288939.032171 10484.000000
544498.67602539 258511.66625977 6.31299820 46 46 46 3739.000000 1.000000 1.000000 1.000000 1.000000 288939.032173 11899.000000
544499.12084961 258511.73266602 6.29799881 45 45 45 3739.000000 1.000000 1.000000 1.000000 1.000000 288939.032175 11750.000000
544499.56469727 258511.80493164 6.29499664 38 38 38 3739.000000 1.000000 1.000000 1.000000 1.000000 288939.032178 9809.000000
544500.00854492 258511.87524414 6.28399887 38 38 38 3739.000000 1.000000 1.000000 1.000000 1.000000 288939.032180 9780.000000
544500.45288086 258511.94555664 6.27099838 37 37 37 3739.000000 1.000000 1.000000 1.000000 1.000000 288939.032182 9507.000000
544500.89624023 258512.02172852 6.27099838 37 37 37 3739.000000 1.000000 1.000000 1.000000 1.000000 288939.032184 9633.000000
544496.99682617 258510.79907227 6.29999771 37 37 37 3739.000000 1.000000 1.000000 1.000000 1.000000 288939.042159 9545.000000
544497.44067383 258510.86743164 6.29599991 37 37 37 3739.000000 1.000000 1.000000 1.000000 1.000000 288939.042161 9671.000000
544497.88452148 258510.94165039 6.30399933 40 40 40 3739.000000 1.000000 1.000000 1.000000 1.000000 288939.042163 10411.000000
544498.32788086 258511.01586914 6.31399765 40 40 40 3739.000000 1.000000 1.000000 1.000000 1.000000 288939.042165 10473.000000
544498.77270508 258511.08422852 6.29799881 39 39 39 3739.000000 1.000000 1.000000 1.000000 1.000000 288939.042167 10215.000000
544499.21606445 258511.15649414 6.29699936 39 39 39 3739.000000 1.000000 1.000000 1.000000 1.000000 288939.042169 10049.000000
544499.66040039 258511.22680664 6.28799667 42 42 42 3739.000000 1.000000 1.000000 1.000000 1.000000 288939.042172 10968.000000
544500.10424805 258511.29711914 6.27999725 41 41 41 3739.000000 1.000000 1.000000 1.000000 1.000000 288939.042174 10595.000000
544500.54809570 258511.36938477 6.27500000 37 37 37 3739.000000 1.000000 1.000000 1.000000 1.000000 288939.042176 9716.000000
544500.19897461 258510.73266602 6.29599991 47 47 47 3739.000000 1.000000 1.000000 1.000000 1.000000 288939.052168 12110.000000
544500.64135742 258510.81079102 6.30299988 45 45 45 3739.000000 1.000000 1.000000 1.000000 1.000000 288939.052170 11666.000000
544491.66967773 258517.64086914 6.39399948 36 36 36 3739.000000 1.000000 0.000000 1.000000 1.000000 288950.410184 9382.000000
544491.24487305 258517.50024414 6.40199890 36 36 36 3739.000000 1.000000 0.000000 1.000000 1.000000 288950.410185 9456.000000
544493.82836914 258517.71899414 6.38999786 37 37 37 3739.000000 1.000000 0.000000 1.000000 1.000000 288950.420167 9596.000000
544493.40307617 258517.58227539 6.39899673 37 37 37 3739.000000 1.000000 0.000000 1.000000 1.000000 288950.420169 9618.000000
544492.97778320 258517.44360352 6.40899887 38 38 38 3739.000000 1.000000 0.000000 1.000000 1.000000 288950.420170 9980.000000
544492.55004883 258517.31274414 6.39599838 35 35 35 3739.000000 1.000000 0.000000 1.000000 1.000000 288950.420173 9065.000000
544492.12329102 258517.18188477 6.38799896 37 37 37 3739.000000 1.000000 0.000000 1.000000 1.000000 288950.420175 9720.000000
544491.70043945 258517.03540039 6.41399994 37 37 37 3739.000000 1.000000 0.000000 1.000000 1.000000 288950.420177 9556.000000
544491.27270508 258516.90454102 6.39599838 38 38 38 3739.000000 1.000000 0.000000 1.000000 1.000000 288950.420179 9813.000000
544495.54711914 258517.67602539 6.37999954 32 32 32 3739.000000 1.000000 0.000000 1.000000 1.000000 288950.430152 8392.000000
544495.11791992 258517.55102539 6.36399689 36 36 36 3739.000000 1.000000 0.000000 1.000000 1.000000 288950.430154 9342.000000
544494.69360352 258517.41040039 6.38799896 32 32 32 3739.000000 1.000000 0.000000 1.000000 1.000000 288950.430156 8363.000000
544494.26684570 258517.27563477 6.39199677 38 38 38 3739.000000 1.000000 0.000000 1.000000 1.000000 288950.430158 9745.000000
544493.83764648 258517.15258789 6.36599960 37 37 37 3739.000000 1.000000 0.000000 1.000000 1.000000 288950.430160 9558.000000
544493.41186523 258517.01391602 6.37399902 38 38 38 3739.000000 1.000000 0.000000 1.000000 1.000000 288950.430162 9829.000000
544492.98608398 258516.87915039 6.37999954 36 36 36 3739.000000 1.000000 0.000000 1.000000 1.000000 288950.430165 9414.000000
544492.56274414 258516.73461914 6.40199890 42 42 42 3739.000000 1.000000 0.000000 1.000000 1.000000 288950.430167 10824.000000
544492.13403320 258516.60766602 6.37900009 39 39 39 3739.000000 1.000000 0.000000 1.000000 1.000000 288950.430169 10135.000000
544491.71020508 258516.46508789 6.39599838 40 40 40 3739.000000 1.000000 0.000000 1.000000 1.000000 288950.430172 10362.000000
544491.28442383 258516.32836914 6.39399948 38 38 38 3739.000000 1.000000 0.000000 1.000000 1.000000 288950.430174 9889.000000
544497.16577148 258517.64086914 6.34199753 36 36 36 3739.000000 1.000000 0.000000 1.000000 1.000000 288950.440137 9362.000000
544496.73803711 258517.51000977 6.34699860 34 34 34 3739.000000 1.000000 0.000000 1.000000 1.000000 288950.440139 8936.000000
544496.31225586 258517.37329102 6.36399689 41 41 41 3739.000000 1.000000 0.000000 1.000000 1.000000 288950.440141 10593.000000
544495.88256836 258517.25024414 6.34299698 35 35 35 3739.000000 1.000000 0.000000 1.000000 1.000000 288950.440143 9027.000000
544495.45581055 258517.11743164 6.34599915 33 33 33 3739.000000 1.000000 0.000000 1.000000 1.000000 288950.440145 8576.000000
544495.03051758 258516.97875977 6.36699905 34 34 34 3739.000000 1.000000 0.000000 1.000000 1.000000 288950.440148 8716.000000
544494.60473633 258516.84204102 6.37699738 34 34 34 3739.000000 1.000000 0.000000 1.000000 1.000000 288950.440150 8923.000000
544494.17749023 258516.71118164 6.37200012 39 39 39 3739.000000 1.000000 0.000000 1.000000 1.000000 288950.440152 10207.000000
544493.75122070 258516.57641602 6.37599792 39 39 39 3739.000000 1.000000 0.000000 1.000000 1.000000 288950.440155 10120.000000
544493.32397461 258516.44555664 6.36599960 37 37 37 3739.000000 1.000000 0.000000 1.000000 1.000000 288950.440157 9562.000000
544492.89770508 258516.31079102 6.36599960 35 35 35 3739.000000 1.000000 0.000000 1.000000 1.000000 288950.440159 9191.000000
544492.47241211 258516.17211914 6.37099686 41 41 41 3739.000000 1.000000 0.000000 1.000000 1.000000 288950.440161 10551.000000
544492.04516602 258516.03930664 6.35999908 32 32 32 3739.000000 1.000000 0.000000 1.000000 1.000000 288950.440163 8347.000000
544491.61987305 258515.90063477 6.36599960 35 35 35 3739.000000 1.000000 0.000000 1.000000 1.000000 288950.440165 9131.000000
544491.19653320 258515.75805664 6.38299789 38 38 38 3739.000000 1.000000 0.000000 1.000000 1.000000 288950.440167 9978.000000
544498.74438477 258517.56860352 6.34199753 36 36 36 3739.000000 1.000000 0.000000 1.000000 1.000000 288950.450122 9236.000000
544498.31518555 258517.44360352 6.33499756 36 36 36 3739.000000 1.000000 0.000000 1.000000 1.000000 288950.450124 9458.000000
544497.88598633 258517.31860352 6.32699814 34 34 34 3739.000000 1.000000 0.000000 1.000000 1.000000 288950.450126 8816.000000
544497.45971680 258517.18383789 6.34299698 34 34 34 3739.000000 1.000000 0.000000 1.000000 1.000000 288950.450128 8849.000000
544497.03198242 258517.05493164 6.34299698 37 37 37 3739.000000 1.000000 0.000000 1.000000 1.000000 288950.450131 9591.000000
544496.60424805 258516.92407227 6.34699860 38 38 38 3739.000000 1.000000 0.000000 1.000000 1.000000 288950.450133 9793.000000
544496.17797852 258516.78930664 6.35699692 35 35 35 3739.000000 1.000000 0.000000 1.000000 1.000000 288950.450135 8987.000000
544495.74926758 258516.66235352 6.34400024 34 34 34 3739.000000 1.000000 0.000000 1.000000 1.000000 288950.450138 8845.000000
544495.32495117 258516.51977539 6.37399902 40 40 40 3739.000000 1.000000 0.000000 1.000000 1.000000 288950.450140 10251.000000
544494.89624023 258516.39282227 6.35599747 36 36 36 3739.000000 1.000000 0.000000 1.000000 1.000000 288950.450142 9220.000000
544494.46948242 258516.26000977 6.35699692 36 36 36 3739.000000 1.000000 0.000000 1.000000 1.000000 288950.450143 9269.000000
544494.04223633 258516.12915039 6.35100021 34 34 34 3739.000000 1.000000 0.000000 1.000000 1.000000 288950.450146 8892.000000
544493.61547852 258515.99633789 6.34999695 42 42 42 3739.000000 1.000000 0.000000 1.000000 1.000000 288950.450148 11000.000000
544493.18872070 258515.86157227 6.34499969 35 35 35 3739.000000 1.000000 0.000000 1.000000 1.000000 288950.450150 9120.000000
544492.76196289 258515.72680664 6.34299698 34 34 34 3739.000000 1.000000 0.000000 1.000000 1.000000 288950.450153 8927.000000
544492.33813477 258515.58618164 6.36099854 34 34 34 3739.000000 1.000000 0.000000 1.000000 1.000000 288950.450155 8785.000000
544491.91186523 258515.45141602 6.35399857 35 35 35 3739.000000 1.000000 0.000000 1.000000 1.000000 288950.450157 9196.000000
544491.48608398 258515.31469727 6.35100021 40 40 40 3739.000000 1.000000 0.000000 1.000000 1.000000 288950.450160 10247.000000
544500.78198242 258517.56079102 6.37399902 32 32 32 3739.000000 1.000000 0.000000 1.000000 1.000000 288950.460105 8330.000000
544500.35131836 258517.44165039 6.35999908 32 32 32 3739.000000 1.000000 0.000000 1.000000 1.000000 288950.460107 8281.000000
544499.92065430 258517.32055664 6.34499969 32 32 32 3739.000000 1.000000 0.000000 1.000000 1.000000 288950.460109 8256.000000
544499.49194336 258517.19360352 6.34799805 37 37 37 3739.000000 1.000000 0.000000 1.000000 1.000000 288950.460111 9667.000000
544499.06274414 258517.06860352 6.34299698 30 30 30 3739.000000 1.000000 0.000000 1.000000 1.000000 288950.460114 7710.000000
544498.63354492 258516.94360352 6.33799973 37 37 37 3739.000000 1.000000 0.000000 1.000000 1.000000 288950.460116 9480.000000
544498.20385742 258516.81860352 6.32699814 37 37 37 3739.000000 1.000000 0.000000 1.000000 1.000000 288950.460118 9720.000000
544497.77661133 258516.68774414 6.33199921 36 36 36 3739.000000 1.000000 0.000000 1.000000 1.000000 288950.460121 9298.000000
544497.34887695 258516.55688477 6.33700027 39 39 39 3739.000000 1.000000 0.000000 1.000000 1.000000 288950.460123 10235.000000
544496.92309570 258516.42211914 6.35599747 37 37 37 3739.000000 1.000000 0.000000 1.000000 1.000000 288950.460125 9509.000000
544496.49438477 258516.29321289 6.34799805 38 38 38 3739.000000 1.000000 0.000000 1.000000 1.000000 288950.460127 9887.000000
544496.06762695 258516.16040039 6.35599747 34 34 34 3739.000000 1.000000 0.000000 1.000000 1.000000 288950.460129 8761.000000
544495.64086914 258516.02563477 6.36199799 37 37 37 3739.000000 1.000000 0.000000 1.000000 1.000000 288950.460131 9625.000000
544495.21362305 258515.89477539 6.35999908 37 37 37 3739.000000 1.000000 0.000000 1.000000 1.000000 288950.460133 9520.000000
544494.78588867 258515.76391602 6.35399857 38 38 38 3739.000000 1.000000 0.000000 1.000000 1.000000 288950.460136 9929.000000
544494.35815430 258515.63500977 6.34400024 38 38 38 3739.000000 1.000000 0.000000 1.000000 1.000000 288950.460138 9782.000000
544493.93041992 258515.50415039 6.33399811 36 36 36 3739.000000 1.000000 0.000000 1.000000 1.000000 288950.460140 9382.000000
544493.50463867 258515.36743164 6.33899918 38 38 38 3739.000000 1.000000 0.000000 1.000000 1.000000 288950.460143 9907.000000
544493.07788086 258515.23461914 6.33199921 34 34 34 3739.000000 1.000000 0.000000 1.000000 1.000000 288950.460145 8723.000000
544492.65356445 258515.09399414 6.34999695 35 35 35 3739.000000 1.000000 0.000000 1.000000 1.000000 288950.460147 9189.000000
544492.22631836 258514.96118164 6.33700027 39 39 39 3739.000000 1.000000 0.000000 1.000000 1.000000 288950.460148 10029.000000
544491.80151367 258514.82250977 6.34400024 39 39 39 3739.000000 1.000000 0.000000 1.000000 1.000000 288950.460151 10029.000000
544491.37622070 258514.68383789 6.34599915 36 36 36 3739.000000 1.000000 0.000000 1.000000 1.000000 288950.460153 9351.000000
544500.74731445 258516.90844727 6.34099808 35 35 35 3739.000000 1.000000 0.000000 1.000000 1.000000 288950.470099 9091.000000
544500.31665039 258516.78930664 6.32699814 33 33 33 3739.000000 1.000000 0.000000 1.000000 1.000000 288950.470101 8532.000000
544499.88745117 258516.66235352 6.32799759 35 35 35 3739.000000 1.000000 0.000000 1.000000 1.000000 288950.470104 9054.000000
544499.45874023 258516.53930664 6.32300034 32 32 32 3739.000000 1.000000 0.000000 1.000000 1.000000 288950.470106 8272.000000
544499.02856445 258516.41430664 6.31299820 30 30 30 3739.000000 1.000000 0.000000 1.000000 1.000000 288950.470108 7934.000000
544498.60229492 258516.27954102 6.33599701 35 35 35 3739.000000 1.000000 0.000000 1.000000 1.000000 288950.470110 9169.000000
544498.17456055 258516.14868164 6.34199753 34 34 34 3739.000000 1.000000 0.000000 1.000000 1.000000 288950.470112 8818.000000
544497.74536133 258516.02368164 6.33199921 35 35 35 3739.000000 1.000000 0.000000 1.000000 1.000000 288950.470114 9138.000000
544497.31713867 258515.89672852 6.32899704 34 34 34 3739.000000 1.000000 0.000000 1.000000 1.000000 288950.470116 8729.000000
544496.89038086 258515.76196289 6.33999863 34 34 34 3739.000000 1.000000 0.000000 1.000000 1.000000 288950.470119 8781.000000
544496.46215820 258515.63500977 6.33299866 35 35 35 3739.000000 1.000000 0.000000 1.000000 1.000000 288950.470121 9191.000000
544496.03540039 258515.50024414 6.34099808 32 32 32 3739.000000 1.000000 0.000000 1.000000 1.000000 288950.470123 8312.000000
544495.60815430 258515.36938477 6.34099808 33 33 33 3739.000000 1.000000 0.000000 1.000000 1.000000 288950.470126 8483.000000
544495.18188477 258515.23461914 6.34599915 35 35 35 3739.000000 1.000000 0.000000 1.000000 1.000000 288950.470128 9071.000000
544494.75415039 258515.10571289 6.33799973 34 34 34 3739.000000 1.000000 0.000000 1.000000 1.000000 288950.470130 8867.000000
544494.32641602 258514.97485352 6.33000031 32 32 32 3739.000000 1.000000 0.000000 1.000000 1.000000 288950.470132 8396.000000
544493.90014648 258514.83813477 6.33399811 40 40 40 3739.000000 1.000000 0.000000 1.000000 1.000000 288950.470134 10491.000000
544493.47290039 258514.70922852 6.32300034 37 37 37 3739.000000 1.000000 0.000000 1.000000 1.000000 288950.470136 9587.000000
544493.04809570 258514.56860352 6.33399811 36 36 36 3739.000000 1.000000 0.000000 1.000000 1.000000 288950.470138 9294.000000
544492.62133789 258514.43579102 6.32699814 37 37 37 3739.000000 1.000000 0.000000 1.000000 1.000000 288950.470141 9689.000000
544492.19555664 258514.29907227 6.33099976 35 35 35 3739.000000 1.000000 0.000000 1.000000 1.000000 288950.470143 9198.000000
544491.77026367 258514.16235352 6.32899704 36 36 36 3739.000000 1.000000 0.000000 1.000000 1.000000 288950.470145 9422.000000
544491.34692383 258514.01782227 6.34699860 38 38 38 3739.000000 1.000000 0.000000 1.000000 1.000000 288950.470148 9982.000000
544500.80541992 258516.29516602 6.31600037 34 34 34 3739.000000 1.000000 0.000000 1.000000 1.000000 288950.480093 8920.000000
544500.37426758 258516.17797852 6.29399719 32 32 32 3739.000000 1.000000 0.000000 1.000000 1.000000 288950.480096 8307.000000
544499.94604492 258516.04907227 6.30399933 37 37 37 3739.000000 1.000000 0.000000 1.000000 1.000000 288950.480097 9649.000000
544499.51635742 258515.92602539 6.29399719 35 35 35 3739.000000 1.000000 0.000000 1.000000 1.000000 288950.480099 9094.000000
544499.08715820 258515.80102539 6.29099884 35 35 35 3739.000000 1.000000 0.000000 1.000000 1.000000 288950.480102 9123.000000
544498.65991211 258515.66821289 6.30299988 36 36 36 3739.000000 1.000000 0.000000 1.000000 1.000000 288950.480104 9385.000000
544498.23071289 258515.54321289 6.29499664 33 33 33 3739.000000 1.000000 0.000000 1.000000 1.000000 288950.480106 8510.000000
544497.80541992 258515.40454102 6.32300034 34 34 34 3739.000000 1.000000 0.000000 1.000000 1.000000 288950.480109 8958.000000
544497.37866211 258515.27368164 6.33199921 35 35 35 3739.000000 1.000000 0.000000 1.000000 1.000000 288950.480111 9174.000000
544496.95092773 258515.14282227 6.33199921 31 31 31 3739.000000 1.000000 0.000000 1.000000 1.000000 288950.480113 8010.000000
544496.52368164 258515.01196289 6.33599701 36 36 36 3739.000000 1.000000 0.000000 1.000000 1.000000 288950.480115 9409.000000
544496.09545898 258514.88305664 6.33000031 35 35 35 3739.000000 1.000000 0.000000 1.000000 1.000000 288950.480117 9051.000000
544495.66674805 258514.75610352 6.31299820 36 36 36 3739.000000 1.000000 0.000000 1.000000 1.000000 288950.480119 9287.000000
544495.24047852 258514.62133789 6.32399979 35 35 35 3739.000000 1.000000 0.000000 1.000000 1.000000 288950.480121 9211.000000
544494.81372070 258514.48657227 6.32699814 39 39 39 3739.000000 1.000000 0.000000 1.000000 1.000000 288950.480124 10027.000000
544494.38891602 258514.34985352 6.33799973 35 35 35 3739.000000 1.000000 0.000000 1.000000 1.000000 288950.480126 9145.000000
544493.96166992 258514.21704102 6.33499756 36 36 36 3739.000000 1.000000 0.000000 1.000000 1.000000 288950.480128 9278.000000
544493.53491211 258514.08422852 6.33199921 34 34 34 3739.000000 1.000000 0.000000 1.000000 1.000000 288950.480131 8887.000000
544493.10717773 258513.95532227 6.31399765 38 38 38 3739.000000 1.000000 0.000000 1.000000 1.000000 288950.480133 9738.000000
544492.68139648 258513.81665039 6.31799927 32 32 32 3739.000000 1.000000 0.000000 1.000000 1.000000 288950.480135 8276.000000
544492.25805664 258513.67407227 6.33999863 33 33 33 3739.000000 1.000000 0.000000 1.000000 1.000000 288950.480137 8625.000000
544491.83129883 258513.54125977 6.32799759 35 35 35 3739.000000 1.000000 0.000000 1.000000 1.000000 288950.480139 9176.000000
544491.40649414 258513.40063477 6.33299866 38 38 38 3739.000000 1.000000 0.000000 1.000000 1.000000 288950.480141 9960.000000
544500.97485352 258515.72485352 6.30199661 33 33 33 3739.000000 1.000000 0.000000 1.000000 1.000000 288950.490087 8567.000000
544500.54370117 258515.60766602 6.28299942 31 31 31 3739.000000 1.000000 0.000000 1.000000 1.000000 288950.490089 8119.000000
